ply
format ascii 1.0
element vertex 241
property float x
property float y
property float z
end_header
26 123 -14
51 115 -14
74 102 -14
93 84 -14
109 63 -14
120 39 -14
125 13 -14
125 -14 -14
120 -40 -14
109 -64 -14
93 -85 -14
74 -103 -14
51 -116 -14
26 -124 -14
0 -127 -14
-27 -124 -14
-52 -116 -14
-75 -103 -14
-94 -85 -14
-110 -64 -14
-121 -40 -14
-126 -14 -14
-126 13 -14
-121 39 -14
-110 63 -14
-94 84 -14
-75 102 -14
-52 115 -14
-27 123 -14
-1 126 -14
26 123 13
51 115 13
74 102 13
93 84 13
109 63 13
120 39 13
125 13 13
125 -14 13
120 -40 13
109 -64 13
93 -85 13
74 -103 13
51 -116 13
26 -124 13
0 -127 13
-27 -124 13
-52 -116 13
-75 -103 13
-94 -85 13
-110 -64 13
-121 -40 13
-126 -14 13
-126 13 13
-121 39 13
-110 63 13
-94 84 13
-75 102 13
-52 115 13
-27 123 13
-1 126 13
25 118 39
49 110 39
70 97 39
89 80 39
104 60 39
114 37 39
120 12 39
120 -13 39
114 -38 39
104 -61 39
89 -81 39
70 -98 39
49 -111 39
25 -119 39
0 -121 39
-26 -119 39
-50 -111 39
-71 -98 39
-90 -81 39
-105 -61 39
-115 -38 39
-121 -13 39
-121 12 39
-115 37 39
-105 60 39
-90 80 39
-71 97 39
-50 110 39
-26 118 39
-1 120 39
22 107 63
44 100 63
64 88 63
81 73 63
95 54 63
104 33 63
109 11 63
109 -12 63
104 -34 63
95 -55 63
81 -74 63
64 -89 63
44 -101 63
22 -108 63
0 -110 63
-23 -108 63
-45 -101 63
-65 -89 63
-82 -74 63
-96 -55 63
-105 -34 63
-110 -12 63
-110 11 63
-105 33 63
-96 54 63
-82 73 63
-65 88 63
-45 100 63
-23 107 63
-1 109 63
19 92 84
38 86 84
55 76 84
70 63 84
81 47 84
89 29 84
93 9 84
93 -10 84
89 -30 84
81 -48 84
70 -64 84
55 -77 84
38 -87 84
19 -93 84
0 -95 84
-20 -93 84
-39 -87 84
-56 -77 84
-71 -64 84
-82 -48 84
-90 -30 84
-94 -10 84
-94 9 84
-90 29 84
-82 47 84
-71 63 84
-56 76 84
-39 86 84
-20 92 84
-1 94 84
15 73 102
30 68 102
43 60 102
55 49 102
64 37 102
70 23 102
74 7 102
74 -8 102
70 -24 102
64 -38 102
55 -50 102
43 -61 102
30 -69 102
15 -74 102
0 -75 102
-16 -74 102
-31 -69 102
-44 -61 102
-56 -50 102
-65 -38 102
-71 -24 102
-75 -8 102
-75 7 102
-71 23 102
-65 37 102
-56 49 102
-44 60 102
-31 68 102
-16 73 102
-1 74 102
10 50 116
21 47 116
30 41 116
38 34 116
44 25 116
49 15 116
51 5 116
51 -6 116
49 -16 116
44 -26 116
38 -35 116
30 -42 116
21 -48 116
10 -51 116
0 -52 116
-11 -51 116
-22 -48 116
-31 -42 116
-39 -35 116
-45 -26 116
-50 -16 116
-52 -6 116
-52 5 116
-50 15 116
-45 25 116
-39 34 116
-31 41 116
-22 47 116
-11 50 116
-1 51 116
5 25 124
10 24 124
15 21 124
19 17 124
22 13 124
25 8 124
26 2 124
26 -3 124
25 -9 124
22 -14 124
19 -18 124
15 -22 124
10 -25 124
5 -26 124
0 -27 124
-6 -26 124
-11 -25 124
-16 -22 124
-20 -18 124
-23 -14 124
-26 -9 124
-27 -3 124
-27 2 124
-26 8 124
-23 13 124
-20 17 124
-16 21 124
-11 24 124
-6 25 124
-1 26 124
0 0 127
